5.791605 -4.670875 -1.742189
5.970424 -3.506046 -1.489559
5.974044 -2.454302 -0.801023
6.040893 -1.576641 0.195015
6.490168 -0.760258 1.162642
7.229676 0.207090 1.650912
7.863898 1.326240 1.480728
8.079483 2.389961 0.775480
7.764739 3.179048 -0.193819
6.972867 3.552005 -1.125515
5.869873 3.468723 -1.739404
4.709222 3.003293 -1.823800
3.773069 2.328405 -1.338315
3.161687 1.609788 -0.484608
2.686786 0.929329 0.454051
2.166485 0.211268 1.267092
1.537834 -0.688118 1.685172
0.907511 -1.644882 1.457052
0.410328 -2.344281 0.647075
0.010075 -2.623372 -0.442828
-0.436694 -2.455137 -1.540252
-1.043341 -1.858239 -2.377525
-1.832149 -1.016231 -2.681684
-2.725965 -0.295385 -2.338809
-3.587749 -0.040805 -1.508221
-4.304417 -0.388694 -0.502713
-4.836138 -1.364677 0.289438
-5.337499 -2.691613 0.363528
-6.114052 -3.681801 -0.197718
-7.094213 -3.990695 -0.971764
-8.034265 -3.596013 -1.694838
-8.730600 -2.688827 -2.167510
-9.093252 -1.523720 -2.309841
-9.125840 -0.318225 -2.136593
-8.888529 0.787277 -1.716564
-8.467943 1.742927 -1.140834
-7.943742 2.580200 -0.496864
-7.365784 3.372908 0.139029
-6.749388 4.184556 0.696933
-6.082578 5.028514 1.123926
-5.345855 5.868294 1.408309
-4.517495 6.641226 1.597991
-3.574379 7.261799 1.788229
-2.521521 7.604396 2.071498
-1.451115 7.523064 2.461167
-0.535852 6.950398 2.831896
0.076366 5.994191 2.960022
0.362977 4.927127 2.662269
0.428711 4.032476 1.941423
0.407543 3.391291 0.963769
0.379411 2.859848 -0.111373
0.424255 2.296931 -1.190135
0.677999 1.618979 -2.156091
1.181867 0.752739 -2.813709
1.805783 -0.254997 -2.986122
2.368979 -1.255770 -2.636562
2.774246 -2.108084 -1.876721
3.083976 -2.762917 -0.872885
3.503726 -3.247567 0.214512
4.234600 -3.594898 1.176290
5.315033 -3.789872 1.766504
6.560358 -3.745028 1.838644
7.691485 -3.395747 1.416386
8.461632 -2.743699 0.652089
8.700335 -1.857682 -0.226686
8.346040 -0.867772 -0.940011
7.509045 0.056125 -1.192363
6.520528 0.797583 -0.802415
5.767372 1.493639 0.084715
5.291636 2.371857 0.968225
4.895004 3.434464 1.461230
4.489180 4.557791 1.425299
4.030713 5.519291 0.907226
3.474480 6.171617 0.096692
2.785944 6.493324 -0.800466
1.947000 6.529534 -1.617684
0.966003 6.334838 -2.224889
-0.099946 5.950740 -2.517628
-1.136371 5.408713 -2.431282
-1.997320 4.750815 -1.968916
-2.568872 4.032198 -1.216317
-2.833757 3.287398 -0.310246
-2.853533 2.484663 0.598889
-2.705075 1.530963 1.331433
-2.512329 0.387859 1.678765
-2.425427 -0.821814 1.501339
-2.542689 -1.884421 0.819767
-2.948513 -2.603039 -0.214987
-3.745678 -2.769602 -1.291800
-4.889617 -2.335646 -1.875885
-6.056396 -1.676913 -1.552786
-6.929600 -1.360777 -0.484887
-7.404222 -1.587504 0.763503
-7.396980 -2.263506 1.853406
-6.977508 -3.186846 2.582608
-6.285351 -4.151409 2.893452
-5.442507 -5.017093 2.845823
-4.518331 -5.714821 2.559211
-3.534270 -6.232058 2.165921
-2.491439 -6.593317 1.782101
-1.400143 -6.843440 1.478499
-0.283500 -7.034515 1.255394
0.836206 -7.197457 1.040365
1.938087 -7.319455 0.730079
2.989831 -7.328925 0.255457
3.944924 -7.120860 -0.366788
4.755737 -6.606965 -1.026914
5.382160 -5.764121 -1.548329
